ply
format ascii 1.0
element vertex 310
property float x
property float y
property float z
end_header
-0.559171 0.065912 2.103671
0.197862 0.037720 0.486588
0.116789 0.143159 0.456226
0.212853 0.031113 0.558622
0.183260 0.080726 0.562292
-0.127683 0.074324 0.452180
-0.120379 0.072386 0.445810
0.120469 0.143093 0.471721
-0.146782 0.071424 0.475518
-0.147431 0.071650 0.479592
0.162877 0.068578 0.460799
0.131654 0.104757 0.372261
0.203382 -0.123411 0.493213
0.215194 0.068592 0.441321
0.224377 0.036401 0.448815
0.215054 0.030021 0.450913
0.091402 0.497553 2.062324
0.553976 0.240564 2.735090
0.127409 0.107739 0.375050
0.081207 0.111410 0.430624
0.087456 0.117559 0.428028
0.162002 0.071013 0.430715
0.148107 0.085075 0.371132
0.053085 0.114494 0.402167
-0.509451 0.201242 1.824571
-0.513014 0.093611 2.108542
-0.512675 0.061003 2.123775
-0.529377 0.253902 1.934940
0.080741 0.144625 0.389354
0.171154 0.079517 0.394255
-0.598747 0.074760 1.563876
-0.652623 -0.135889 1.792641
0.119369 0.134829 0.399405
0.023939 0.062738 0.246463
0.127425 0.151005 0.477050
-0.549387 0.149851 1.575886
-0.607385 0.079921 1.580070
-0.591058 0.029265 1.728891
0.207566 0.006583 0.556117
0.209562 0.006329 0.563060
0.242169 -0.025128 0.552417
0.209479 0.006056 0.564381
0.241343 -0.025640 0.549952
0.242000 -0.024836 0.553040
0.209895 0.006104 0.566834
-0.274483 0.457861 1.361717
0.132667 0.104546 0.377764
0.131499 0.104219 0.371168
-0.601898 0.073524 1.571170
-0.605288 0.070269 1.573124
-0.635494 0.159514 1.677025
-0.602568 0.069203 1.572933
-0.636158 0.056925 1.609625
-0.538298 0.075388 1.623614
-0.559508 0.147142 1.628530
-0.787280 -0.052007 1.744298
-0.745569 -0.222873 1.696187
-0.675403 -0.130950 1.743059
-0.794764 0.044363 1.784463
-0.771582 -0.138388 1.753045
-0.537155 0.039332 1.738721
0.230433 -0.087140 0.527458
0.202422 0.026070 0.477120
0.203080 0.026125 0.478124
-0.670906 -0.042669 1.777885
-0.511612 0.202132 1.835878
-0.513848 0.201208 1.844435
-0.651446 -0.089458 1.849088
-0.528931 0.146696 1.810908
-0.512252 0.141982 1.735846
0.562000 0.248917 2.526633
0.667531 0.286359 2.951389
0.163961 0.073559 0.372955
0.143120 0.087495 0.386464
0.057508 0.114918 0.397081
0.050541 0.111265 0.434165
0.046169 0.119994 0.546241
-0.119117 0.072886 0.433113
-0.164551 0.098543 0.586575
-0.541796 0.086794 1.636379
-0.235157 0.179937 4.307365
-0.418773 0.668624 3.546513
0.203563 -0.649949 5.395754
0.158261 -0.676404 5.696039
0.134791 -0.678587 5.239344
-2.292485 -0.968947 7.388250
-0.530119 0.077796 1.730755
-0.152018 0.075058 0.449943
-0.154631 0.073433 0.449464
0.110879 0.138803 0.427919
0.116366 0.142305 0.455825
0.204744 0.023173 0.491460
0.304237 0.071220 3.292540
-0.216433 0.070493 0.579885
-0.570490 0.066020 1.996395
1.105904 -0.603751 3.828527
1.030724 -0.660314 4.080836
-2.027392 -0.619566 6.814984
-1.651213 -0.252153 6.936872
-1.377172 -0.254180 7.529806
-0.646685 -0.071911 1.798014
0.933324 -0.911997 4.199246
0.685602 -0.901135 4.388302
-0.601247 0.034051 1.771706
0.137882 0.296889 3.962519
-0.475216 0.656009 3.731207
-0.762151 -0.056588 1.777719
0.177787 -0.032253 5.088443
-2.783998 -0.920727 8.432371
-2.031440 -0.675451 6.806030
-2.286706 -0.972225 7.381619
-0.650047 -0.075390 1.805177
-0.183684 0.175617 4.240018
-0.118549 0.071428 0.439063
0.296996 0.073200 3.271792
0.051822 0.120044 0.547045
0.045144 0.119706 0.542749
-0.251862 0.069881 0.675345
-0.861188 0.413480 3.130234
-0.527791 0.060893 1.837426
-0.533891 0.150129 1.842550
-0.527542 0.077868 1.705910
-0.554556 0.065349 2.325970
-1.342805 -0.022049 5.948313
1.095454 -0.694118 3.473401
0.197696 0.043027 0.466041
0.205382 -0.128827 0.488851
0.204940 0.022883 0.493486
0.204370 0.023218 0.495387
0.215364 -0.104448 0.502826
0.211509 -0.125115 0.497594
-0.555878 0.067213 2.102044
-0.754060 -0.056610 1.755149
-2.061626 -0.271345 6.893615
-2.012501 -0.616647 6.742846
0.743678 -0.590441 4.515782
-0.571050 0.627488 3.620828
-0.598882 0.028865 1.757605
-0.149662 0.073449 0.444615
-0.282501 -0.993569 4.671760
0.071949 0.108368 0.456769
-0.529107 0.076678 1.696903
-0.546658 0.084988 1.651204
0.211322 0.032655 0.538982
0.052163 0.119287 0.546876
0.043714 0.119891 0.548564
-0.121421 0.072944 0.436094
-0.864448 0.601986 3.816276
-1.152048 -0.028349 5.120854
-0.758455 -0.058458 1.773639
-0.671325 -0.131875 1.731150
-0.649182 -0.072992 1.803076
-0.543119 0.061937 1.901632
1.115234 -0.707336 3.552058
-1.804774 -1.056941 4.653914
-0.208490 -0.954043 4.847829
-0.248789 0.069550 0.667701
-0.664546 -0.143699 1.812564
-0.651260 -0.141095 1.764949
-0.008875 0.120946 0.523855
-2.060511 -0.672693 6.831193
-2.667863 -0.889209 8.065422
-2.285857 -0.992674 7.420132
0.204558 -0.676887 5.559339
-1.020089 0.261638 6.469415
-0.860133 -0.013922 6.604008
-0.610443 0.067550 2.571190
-0.545087 0.151968 1.864025
-0.597567 0.027467 1.759937
-0.121166 0.072770 0.434694
-0.739089 0.643979 3.870090
-0.535358 0.079482 1.644105
-2.486849 -0.841039 7.508449
-2.465171 -0.837671 7.381617
-0.917083 -0.087130 6.967125
-1.812474 -1.059214 4.684163
-1.907991 -0.736668 6.673495
-0.650294 -0.077863 1.814070
-0.023235 0.089014 0.366058
-0.543476 0.060824 1.907184
-0.594661 0.029972 1.746798
-0.148957 0.071700 0.443136
-0.122147 0.072248 0.436756
-0.597756 0.025913 1.755138
-0.594303 0.026817 1.748090
-0.228605 0.071854 0.614771
0.069329 0.120372 0.413249
-0.769391 -0.061737 1.792769
-0.152467 0.073907 0.451134
0.720117 0.096833 2.858461
-1.036780 0.250526 6.441501
-0.676151 -0.139357 1.763226
-1.679880 -0.597686 6.544770
-0.572450 0.057040 2.367119
-0.237504 0.072327 0.642394
0.135770 0.103643 0.374794
0.201268 0.044408 0.478566
0.202678 0.046230 0.483074
0.196910 0.042832 0.467746
0.066289 0.112001 0.468114
0.126004 0.137501 0.464634
0.233942 -0.096815 0.535230
0.111515 0.147223 0.398007
0.115974 0.134471 0.395091
0.150051 0.078446 0.403088
0.238111 0.021110 0.449154
0.217314 0.070247 0.418501
0.213905 0.073684 0.424154
-0.531493 0.062615 1.684078
-0.493917 0.143595 1.688966
-0.642223 -0.141268 1.672945
-0.489883 0.139321 1.640525
-0.494712 0.118088 1.676535
-0.639380 0.160942 1.683235
-0.507871 0.057730 1.759407
-0.605408 0.021007 1.782673
-0.498924 0.239235 1.816164
-0.503700 0.074940 2.130034
0.740058 0.113606 3.042671
-0.741595 0.429807 2.898272
0.707281 0.093804 2.850338
0.622798 0.116855 2.792867
0.635307 0.117189 2.825186
0.456495 0.006604 2.935351
0.854818 0.076548 3.350956
0.109400 0.146710 0.392135
0.258678 0.018108 0.500030
0.224084 0.032070 0.450517
0.254020 0.016968 0.482539
0.224537 0.031956 0.452893
0.248224 0.017161 0.473889
0.121870 0.146061 0.464225
0.128589 0.125033 0.471645
0.124929 0.149749 0.475750
-0.141358 0.081503 0.493556
0.168922 0.084320 0.379944
0.111051 0.146921 0.396053
0.237711 0.032620 0.439711
0.226107 0.036803 0.443378
0.239307 0.024446 0.442740
0.238028 0.021354 0.447670
0.226693 0.036628 0.452404
0.246622 -0.123800 0.445369
0.235073 0.022257 0.453204
0.250762 -0.052475 0.460195
0.126267 0.145085 0.415978
0.199440 0.071810 0.355266
0.076236 0.127083 0.442552
0.218616 0.061344 0.442892
0.231152 -0.087344 0.534054
0.224504 0.027713 0.556412
0.223351 0.028784 0.578105
-0.524547 0.079664 1.660331
-0.609319 0.163475 1.617940
-0.546294 0.071413 1.668936
-0.517177 0.043930 1.692823
-0.520792 0.198097 1.726227
0.116408 0.147718 0.401608
0.066024 0.126237 0.439432
0.217364 0.070906 0.446027
0.240111 0.032147 0.440054
0.237251 0.032912 0.439260
0.141179 0.158636 0.467588
0.252947 0.016548 0.479957
0.233769 -0.138128 0.558584
0.140533 0.160786 0.470074
0.137803 0.158899 0.468851
0.141395 0.160813 0.476729
0.140445 0.122599 0.483322
0.129290 0.118198 0.479674
0.126755 0.146473 0.468826
0.067793 0.125220 0.475658
0.129635 0.150710 0.476753
-0.147011 0.082893 0.514355
0.209509 0.041067 0.487118
0.147873 0.085103 0.371630
0.130230 0.104057 0.375915
0.174304 0.106021 0.469636
0.247110 0.019281 0.480305
0.079084 0.122944 0.416210
0.090128 0.118422 0.430996
0.080333 0.125923 0.443243
-0.636467 -0.078138 1.785422
0.021339 0.127108 0.514415
0.231911 -0.088878 0.528065
0.229031 -0.091652 0.526221
0.224947 0.029789 0.581061
0.240174 -0.145704 0.557692
0.240947 -0.143719 0.560930
0.240716 -0.143738 0.561009
0.225896 0.013000 0.604698
-0.527805 0.126659 1.535456
-0.521450 0.092233 1.570508
-0.526552 0.090732 1.589073
-0.593087 0.130402 1.587522
-0.503120 0.083144 1.617504
-0.616116 0.143786 1.637930
0.535215 0.081777 2.833324
0.157412 0.132573 0.467760
0.192030 0.081790 0.544992
0.076853 0.125042 0.417596
-0.110232 0.050111 0.289510
0.117214 0.573564 2.681966
-0.021063 0.680093 3.183286
-0.009917 0.621831 2.888141
-0.527085 0.037059 1.724214
-0.439268 0.212225 1.594349
-0.572849 -0.072824 1.819558
-0.242949 0.645316 3.389459
0.886785 -0.043006 3.164567
